 -14 8 39
 -14 9 34
 -14 9 35
 -14 9 36
 -14 9 37
 -14 9 38
 -14 9 39
 -14 10 33
 -14 10 34
 -14 10 35
 -14 10 36
 -14 10 37
 -14 10 38
 -14 11 32
 -14 11 33
 -14 11 34
 -14 11 35
 -14 11 36
 -13 6 42
 -13 6 43
 -13 7 25
 -13 7 40
 -13 7 41
 -13 7 42
 -13 8 24
 -13 8 38
 -13 8 39
 -13 8 40
 -13 8 41
 -13 9 33
 -13 9 35
 -13 9 36
 -13 9 37
 -13 9 38
 -13 9 39
 -13 9 40
 -13 10 31
 -13 10 32
 -13 10 33
 -13 10 34
 -13 10 35
 -13 10 36
 -13 10 37
 -13 10 38
 -13 10 39
 -13 11 31
 -13 11 32
 -13 11 33
 -13 11 34
 -13 11 35
 -13 11 36
 -12 4 24
 -12 5 23
 -12 5 24
 -12 5 25
 -12 5 43
 -12 5 44
 -12 6 23
 -12 6 24
 -12 6 25
 -12 6 26
 -12 6 27
 -12 6 28
 -12 6 40
 -12 6 41
 -12 6 43
 -12 6 44
 -12 7 23
 -12 7 24
 -12 7 25
 -12 7 26
 -12 7 27
 -12 7 39
 -12 7 40
 -12 7 41
 -12 7 42
 -12 7 43
 -12 7 44
 -12 8 22
 -12 8 23
 -12 8 24
 -12 8 25
 -12 8 26
 -12 8 27
 -12 8 39
 -12 8 40
 -12 8 41
 -12 8 42
 -12 9 23
 -12 9 31
 -12 9 38
 -12 9 39
 -12 9 40
 -12 10 31
 -12 10 32
 -12 10 36
 -12 10 37
 -12 10 38
 -12 10 39
 -12 11 31
 -12 11 32
 -11 3 24
 -11 3 25
 -11 3 26
 -11 4 22
 -11 4 23
 -11 4 24
 -11 4 25
 -11 4 26
 -11 4 27
 -11 4 28
 -11 5 22
 -11 5 23
 -11 5 24
 -11 5 25
 -11 5 26
 -11 5 27
 -11 6 21
 -11 6 22
 -11 6 23
 -11 6 24
 -11 6 25
 -11 6 26
 -11 6 27
 -11 6 42
 -11 6 43
 -11 6 44
 -11 7 21
 -11 7 22
 -11 7 23
 -11 7 24
 -11 7 25
 -11 7 26
 -11 7 27
 -11 7 39
 -11 7 40
 -11 7 42
 -11 7 43
 -11 7 44
 -11 8 21
 -11 8 22
 -11 8 23
 -11 8 24
 -11 8 31
 -11 8 32
 -11 8 39
 -11 8 40
 -11 8 41
 -11 8 42
 -11 8 43
 -11 8 44
 -11 9 22
 -11 9 23
 -11 9 24
 -11 9 26
 -11 9 27
 -11 9 31
 -11 9 32
 -11 9 39
 -11 9 40
 -11 9 41
 -11 9 42
 -11 10 31
 -11 10 32
 -11 10 39
 -11 11 31
 -11 11 32
 -10 2 25
 -10 2 26
 -10 3 6
 -10 3 24
 -10 3 25
 -10 3 26
 -10 4 5
 -10 4 6
 -10 4 7
 -10 4 8
 -10 4 23
 -10 4 24
 -10 4 25
 -10 4 26
 -10 5 5
 -10 5 6
 -10 5 7
 -10 5 8
 -10 5 9
 -10 5 11
 -10 5 12
 -10 5 22
 -10 5 23
 -10 5 24
 -10 5 25
 -10 5 26
 -10 6 5
 -10 6 6
 -10 6 7
 -10 6 8
 -10 6 9
 -10 6 10
 -10 6 11
 -10 6 12
 -10 6 21
 -10 6 22
 -10 6 23
 -10 6 24
 -10 6 26
 -10 6 43
 -10 7 5
 -10 7 6
 -10 7 7
 -10 7 8
 -10 7 9
 -10 7 10
 -10 7 11
 -10 7 12
 -10 7 21
 -10 7 22
 -10 7 23
 -10 7 24
 -10 7 31
 -10 7 32
 -10 7 42
 -10 7 43
 -10 7 44
 -10 8 5
 -10 8 6
 -10 8 7
 -10 8 8
 -10 8 10
 -10 8 11
 -10 8 12
 -10 8 21
 -10 8 22
 -10 8 23
 -10 8 24
 -10 8 31
 -10 8 32
 -10 8 42
 -10 8 43
 -10 8 44
 -10 9 5
 -10 9 6
 -10 9 7
 -10 9 8
 -10 9 9
 -10 9 10
 -10 9 11
 -10 9 21
 -10 9 22
 -10 9 23
 -10 9 24
 -10 9 31
 -10 9 32
 -10 9 38
 -10 9 39
 -10 9 40
 -10 9 41
 -10 9 42
 -10 9 43
 -10 10 5
 -10 10 6
 -10 10 7
 -10 10 11
 -10 10 22
 -10 10 23
 -10 10 31
 -10 10 32
 -10 10 39
 -10 10 40
 -10 11 31
 -10 11 32
 -9 2 25
 -9 2 26
 -9 3 5
 -9 3 6
 -9 3 7
 -9 3 8
 -9 3 9
 -9 3 10
 -9 3 11
 -9 3 24
 -9 3 26
 -9 4 5
 -9 4 6
 -9 4 7
 -9 4 8
 -9 4 9
 -9 4 10
 -9 4 11
 -9 4 12
 -9 4 24
 -9 4 26
 -9 5 5
 -9 5 6
 -9 5 7
 -9 5 8
 -9 5 9
 -9 5 10
 -9 5 11
 -9 5 12
 -9 5 23
 -9 5 24
 -9 6 5
 -9 6 6
 -9 6 7
 -9 6 8
 -9 6 9
 -9 6 10
 -9 6 11
 -9 6 12
 -9 6 21
 -9 6 22
 -9 6 23
 -9 6 24
 -9 6 32
 -9 6 38
 -9 6 39
 -9 7 4
 -9 7 5
 -9 7 6
 -9 7 7
 -9 7 8
 -9 7 9
 -9 7 10
 -9 7 11
 -9 7 12
 -9 7 13
 -9 7 21
 -9 7 22
 -9 7 23
 -9 7 24
 -9 7 31
 -9 7 32
 -9 7 38
 -9 7 39
 -9 7 43
 -9 8 4
 -9 8 5
 -9 8 6
 -9 8 7
 -9 8 8
 -9 8 9
 -9 8 10
 -9 8 11
 -9 8 12
 -9 8 13
 -9 8 21
 -9 8 22
 -9 8 23
 -9 8 24
 -9 8 31
 -9 8 32
 -9 8 33
 -9 8 38
 -9 8 42
 -9 8 43
 -9 9 4
 -9 9 5
 -9 9 6
 -9 9 7
 -9 9 8
 -9 9 9
 -9 9 10
 -9 9 11
 -9 9 12
 -9 9 13
 -9 9 21
 -9 9 22
 -9 9 23
 -9 9 24
 -9 9 31
 -9 9 32
 -9 9 33
 -9 9 37
 -9 9 38
 -9 9 39
 -9 9 40
 -9 9 42
 -9 10 4
 -9 10 5
 -9 10 6
 -9 10 7
 -9 10 8
 -9 10 9
 -9 10 10
 -9 10 11
 -9 10 12
 -9 10 13
 -9 10 14
 -9 10 21
 -9 10 22
 -9 10 23
 -9 10 24
 -9 10 31
 -9 10 32
 -9 10 33
 -9 10 39
 -9 10 40
 -9 11 5
 -9 11 6
 -9 11 7
 -9 11 8
 -9 11 11
 -9 11 14
 -9 11 31
 -9 11 32
 -8 1 6
 -8 1 7
 -8 1 8
 -8 1 9
 -8 1 10
 -8 1 11
 -8 2 5
 -8 2 6
 -8 2 7
 -8 2 8
 -8 2 9
 -8 2 10
 -8 2 11
 -8 2 12
 -8 3 5
 -8 3 6
 -8 3 7
 -8 3 8
 -8 3 9
 -8 3 10
 -8 3 11
 -8 3 12
 -8 4 4
 -8 4 5
 -8 4 6
 -8 4 7
 -8 4 8
 -8 4 9
 -8 4 10
 -8 4 11
 -8 4 12
 -8 4 38
 -8 4 39
 -8 5 4
 -8 5 5
 -8 5 6
 -8 5 7
 -8 5 8
 -8 5 9
 -8 5 10
 -8 5 11
 -8 5 12
 -8 5 13
 -8 5 14
 -8 5 24
 -8 5 33
 -8 5 38
 -8 5 39
 -8 5 40
 -8 6 4
 -8 6 5
 -8 6 6
 -8 6 7
 -8 6 8
 -8 6 9
 -8 6 10
 -8 6 11
 -8 6 12
 -8 6 13
 -8 6 14
 -8 6 23
 -8 6 24
 -8 6 31
 -8 6 32
 -8 6 33
 -8 6 37
 -8 6 38
 -8 6 39
 -8 6 40
 -8 7 4
 -8 7 5
 -8 7 6
 -8 7 7
 -8 7 8
 -8 7 9
 -8 7 10
 -8 7 11
 -8 7 12
 -8 7 13
 -8 7 14
 -8 7 22
 -8 7 23
 -8 7 24
 -8 7 31
 -8 7 32
 -8 7 33
 -8 7 37
 -8 7 38
 -8 7 39
 -8 7 40
 -8 8 4
 -8 8 5
 -8 8 6
 -8 8 7
 -8 8 8
 -8 8 9
 -8 8 10
 -8 8 11
 -8 8 12
 -8 8 13
 -8 8 21
 -8 8 22
 -8 8 23
 -8 8 24
 -8 8 25
 -8 8 31
 -8 8 32
 -8 8 33
 -8 8 37
 -8 8 38
 -8 8 39
 -8 8 40
 -8 9 4
 -8 9 5
 -8 9 6
 -8 9 7
 -8 9 8
 -8 9 9
 -8 9 10
 -8 9 11
 -8 9 12
 -8 9 13
 -8 9 14
 -8 9 21
 -8 9 22
 -8 9 23
 -8 9 24
 -8 9 31
 -8 9 32
 -8 9 33
 -8 9 37
 -8 9 38
 -8 9 39
 -8 9 40
 -8 10 4
 -8 10 5
 -8 10 6
 -8 10 7
 -8 10 8
 -8 10 9
 -8 10 10
 -8 10 11
 -8 10 12
 -8 10 13
 -8 10 14
 -8 10 23
 -8 10 24
 -8 10 31
 -8 10 32
 -8 10 33
 -8 11 4
 -8 11 5
 -8 11 6
 -8 11 7
 -8 11 8
 -8 11 9
 -8 11 10
 -8 11 11
 -8 11 12
 -8 11 13
 -8 11 14
 -8 12 6
 -8 12 7
 -8 12 8
 -8 12 9
 -8 12 11
 -7 0 6
 -7 0 7
 -7 0 8
 -7 0 9
 -7 0 10
 -7 0 11
 -7 1 5
 -7 1 6
 -7 1 7
 -7 1 8
 -7 1 9
 -7 1 10
 -7 1 11
 -7 1 12
 -7 2 5
 -7 2 6
 -7 2 7
 -7 2 8
 -7 2 9
 -7 2 10
 -7 2 11
 -7 2 12
 -7 2 13
 -7 2 14
 -7 2 40
 -7 3 4
 -7 3 5
 -7 3 6
 -7 3 7
 -7 3 8
 -7 3 9
 -7 3 10
 -7 3 11
 -7 3 12
 -7 3 13
 -7 3 14
 -7 3 15
 -7 3 24
 -7 3 38
 -7 3 39
 -7 3 40
 -7 4 4
 -7 4 5
 -7 4 6
 -7 4 7
 -7 4 8
 -7 4 9
 -7 4 10
 -7 4 11
 -7 4 12
 -7 4 13
 -7 4 14
 -7 4 24
 -7 4 37
 -7 4 38
 -7 4 39
 -7 4 40
 -7 5 4
 -7 5 5
 -7 5 6
 -7 5 7
 -7 5 8
 -7 5 9
 -7 5 10
 -7 5 11
 -7 5 12
 -7 5 13
 -7 5 14
 -7 5 24
 -7 5 31
 -7 5 32
 -7 5 33
 -7 5 37
 -7 5 38
 -7 5 39
 -7 5 40
 -7 5 41
 -7 6 4
 -7 6 5
 -7 6 6
 -7 6 7
 -7 6 8
 -7 6 9
 -7 6 10
 -7 6 11
 -7 6 12
 -7 6 13
 -7 6 14
 -7 6 24
 -7 6 31
 -7 6 32
 -7 6 33
 -7 6 37
 -7 6 38
 -7 6 39
 -7 6 40
 -7 6 41
 -7 6 42
 -7 7 4
 -7 7 5
 -7 7 6
 -7 7 7
 -7 7 8
 -7 7 9
 -7 7 10
 -7 7 11
 -7 7 12
 -7 7 13
 -7 7 14
 -7 7 24
 -7 7 25
 -7 7 26
 -7 7 31
 -7 7 32
 -7 7 33
 -7 7 37
 -7 7 38
 -7 7 39
 -7 7 40
 -7 7 41
 -7 7 42
 -7 8 4
 -7 8 5
 -7 8 6
 -7 8 7
 -7 8 8
 -7 8 9
 -7 8 10
 -7 8 11
 -7 8 12
 -7 8 13
 -7 8 14
 -7 8 23
 -7 8 24
 -7 8 25
 -7 8 26
 -7 8 31
 -7 8 32
 -7 8 33
 -7 8 37
 -7 8 38
 -7 8 39
 -7 8 40
 -7 8 41
 -7 8 42
 -7 9 4
 -7 9 5
 -7 9 6
 -7 9 7
 -7 9 8
 -7 9 9
 -7 9 10
 -7 9 11
 -7 9 12
 -7 9 13
 -7 9 14
 -7 9 23
 -7 9 24
 -7 9 25
 -7 9 31
 -7 9 32
 -7 9 33
 -7 9 37
 -7 9 38
 -7 9 39
 -7 9 40
 -7 10 4
 -7 10 5
 -7 10 6
 -7 10 7
 -7 10 8
 -7 10 9
 -7 10 10
 -7 10 11
 -7 10 12
 -7 10 13
 -7 10 14
 -7 10 24
 -7 10 25
 -7 10 31
 -7 10 32
 -7 10 33
 -7 10 37
 -7 10 38
 -7 11 5
 -7 11 6
 -7 11 7
 -7 11 8
 -7 11 9
 -7 11 10
 -7 11 11
 -7 11 12
 -7 11 13
 -7 11 14
 -7 12 6
 -7 12 7
 -7 12 8
 -7 12 9
 -7 12 10
 -7 12 11
 -7 12 12
 -7 12 13
 -7 12 14
 -7 13 7
 -7 13 8
 -7 13 9
 -7 13 11
 -6 -1 6
 -6 -1 7
 -6 -1 8
 -6 -1 9
 -6 -1 10
 -6 -1 11
 -6 -1 12
 -6 0 5
 -6 0 6
 -6 0 7
 -6 0 8
 -6 0 9
 -6 0 10
 -6 0 11
 -6 0 12
 -6 1 5
 -6 1 6
 -6 1 7
 -6 1 8
 -6 1 9
 -6 1 10
 -6 1 11
 -6 1 12
 -6 1 13
 -6 1 14
 -6 2 4
 -6 2 5
 -6 2 6
 -6 2 7
 -6 2 8
 -6 2 9
 -6 2 10
 -6 2 11
 -6 2 12
 -6 2 13
 -6 2 14
 -6 2 15
 -6 2 25
 -6 2 38
 -6 2 39
 -6 2 40
 -6 2 41
 -6 3 4
 -6 3 5
 -6 3 6
 -6 3 7
 -6 3 8
 -6 3 9
 -6 3 10
 -6 3 11
 -6 3 12
 -6 3 13
 -6 3 14
 -6 3 15
 -6 3 25
 -6 3 37
 -6 3 38
 -6 3 39
 -6 3 40
 -6 3 41
 -6 4 4
 -6 4 5
 -6 4 6
 -6 4 7
 -6 4 8
 -6 4 9
 -6 4 10
 -6 4 11
 -6 4 12
 -6 4 13
 -6 4 14
 -6 4 15
 -6 4 25
 -6 4 32
 -6 4 33
 -6 4 37
 -6 4 38
 -6 4 39
 -6 4 40
 -6 4 41
 -6 4 42
 -6 5 4
 -6 5 5
 -6 5 6
 -6 5 7
 -6 5 8
 -6 5 9
 -6 5 10
 -6 5 11
 -6 5 12
 -6 5 13
 -6 5 14
 -6 5 15
 -6 5 32
 -6 5 33
 -6 5 37
 -6 5 38
 -6 5 39
 -6 5 40
 -6 5 41
 -6 5 42
 -6 6 4
 -6 6 5
 -6 6 6
 -6 6 7
 -6 6 8
 -6 6 9
 -6 6 10
 -6 6 11
 -6 6 12
 -6 6 13
 -6 6 14
 -6 6 24
 -6 6 25
 -6 6 26
 -6 6 31
 -6 6 32
 -6 6 33
 -6 6 37
 -6 6 38
 -6 6 39
 -6 6 40
 -6 6 41
 -6 6 42
 -6 6 43
 -6 7 4
 -6 7 5
 -6 7 6
 -6 7 7
 -6 7 8
 -6 7 9
 -6 7 10
 -6 7 11
 -6 7 12
 -6 7 13
 -6 7 14
 -6 7 24
 -6 7 25
 -6 7 26
 -6 7 31
 -6 7 32
 -6 7 33
 -6 7 37
 -6 7 38
 -6 7 39
 -6 7 40
 -6 7 41
 -6 7 42
 -6 7 43
 -6 8 4
 -6 8 5
 -6 8 6
 -6 8 7
 -6 8 8
 -6 8 9
 -6 8 10
 -6 8 11
 -6 8 12
 -6 8 13
 -6 8 14
 -6 8 24
 -6 8 25
 -6 8 26
 -6 8 31
 -6 8 32
 -6 8 33
 -6 8 37
 -6 8 38
 -6 8 39
 -6 8 40
 -6 8 41
 -6 8 42
 -6 8 43
 -6 9 4
 -6 9 5
 -6 9 6
 -6 9 7
 -6 9 8
 -6 9 9
 -6 9 10
 -6 9 11
 -6 9 12
 -6 9 13
 -6 9 14
 -6 9 24
 -6 9 25
 -6 9 26
 -6 9 31
 -6 9 32
 -6 9 33
 -6 9 37
 -6 9 38
 -6 9 39
 -6 9 40
 -6 9 41
 -6 9 42
 -6 10 4
 -6 10 5
 -6 10 6
 -6 10 7
 -6 10 8
 -6 10 9
 -6 10 10
 -6 10 11
 -6 10 12
 -6 10 13
 -6 10 14
 -6 10 24
 -6 10 25
 -6 10 26
 -6 10 31
 -6 10 32
 -6 10 33
 -6 10 37
 -6 10 38
 -6 10 39
 -6 11 5
 -6 11 6
 -6 11 7
 -6 11 8
 -6 11 9
 -6 11 10
 -6 11 11
 -6 11 12
 -6 11 13
 -6 11 14
 -6 11 26
 -6 12 5
 -6 12 6
 -6 12 7
 -6 12 8
 -6 12 9
 -6 12 10
 -6 12 11
 -6 12 12
 -6 12 13
 -6 12 14
 -6 13 6
 -6 13 7
 -6 13 8
 -6 13 9
 -6 13 10
 -6 13 11
 -6 13 12
 -6 14 7
 -6 14 8
 -6 14 9
 -6 14 11
 -5 -2 8
 -5 -2 9
 -5 -2 10
 -5 -2 11
 -5 -1 5
 -5 -1 6
 -5 -1 7
 -5 -1 8
 -5 -1 9
 -5 -1 10
 -5 -1 11
 -5 -1 12
 -5 0 5
 -5 0 6
 -5 0 7
 -5 0 8
 -5 0 9
 -5 0 10
 -5 0 11
 -5 0 12
 -5 0 13
 -5 1 4
 -5 1 5
 -5 1 6
 -5 1 7
 -5 1 8
 -5 1 9
 -5 1 10
 -5 1 11
 -5 1 12
 -5 1 13
 -5 1 14
 -5 1 39
 -5 1 41
 -5 2 4
 -5 2 5
 -5 2 6
 -5 2 7
 -5 2 8
 -5 2 9
 -5 2 10
 -5 2 11
 -5 2 12
 -5 2 13
 -5 2 14
 -5 2 15
 -5 2 25
 -5 2 37
 -5 2 38
 -5 2 39
 -5 2 40
 -5 2 41
 -5 3 4
 -5 3 5
 -5 3 6
 -5 3 7
 -5 3 8
 -5 3 9
 -5 3 10
 -5 3 11
 -5 3 12
 -5 3 13
 -5 3 14
 -5 3 15
 -5 3 25
 -5 3 32
 -5 3 33
 -5 3 37
 -5 3 38
 -5 3 39
 -5 3 40
 -5 3 41
 -5 4 4
 -5 4 5
 -5 4 6
 -5 4 7
 -5 4 8
 -5 4 9
 -5 4 10
 -5 4 11
 -5 4 12
 -5 4 13
 -5 4 14
 -5 4 15
 -5 4 31
 -5 4 32
 -5 4 33
 -5 4 37
 -5 4 38
 -5 4 39
 -5 4 40
 -5 4 41
 -5 4 42
 -5 4 43
 -5 5 4
 -5 5 5
 -5 5 6
 -5 5 7
 -5 5 8
 -5 5 9
 -5 5 10
 -5 5 11
 -5 5 12
 -5 5 13
 -5 5 14
 -5 5 24
 -5 5 26
 -5 5 31
 -5 5 32
 -5 5 33
 -5 5 37
 -5 5 38
 -5 5 39
 -5 5 40
 -5 5 41
 -5 5 42
 -5 5 43
 -5 6 3
 -5 6 4
 -5 6 5
 -5 6 6
 -5 6 7
 -5 6 8
 -5 6 9
 -5 6 10
 -5 6 11
 -5 6 12
 -5 6 13
 -5 6 14
 -5 6 24
 -5 6 25
 -5 6 26
 -5 6 27
 -5 6 28
 -5 6 31
 -5 6 32
 -5 6 33
 -5 6 37
 -5 6 38
 -5 6 39
 -5 6 40
 -5 6 41
 -5 6 42
 -5 6 43
 -5 6 44
 -5 7 3
 -5 7 4
 -5 7 5
 -5 7 6
 -5 7 7
 -5 7 8
 -5 7 9
 -5 7 10
 -5 7 11
 -5 7 12
 -5 7 13
 -5 7 14
 -5 7 24
 -5 7 25
 -5 7 26
 -5 7 27
 -5 7 28
 -5 7 29
 -5 7 31
 -5 7 32
 -5 7 33
 -5 7 37
 -5 7 38
 -5 7 39
 -5 7 40
 -5 7 41
 -5 7 42
 -5 7 43
 -5 7 44
 -5 8 4
 -5 8 5
 -5 8 6
 -5 8 7
 -5 8 8
 -5 8 9
 -5 8 10
 -5 8 11
 -5 8 12
 -5 8 13
 -5 8 14
 -5 8 24
 -5 8 25
 -5 8 26
 -5 8 27
 -5 8 28
 -5 8 30
 -5 8 31
 -5 8 32
 -5 8 33
 -5 8 37
 -5 8 38
 -5 8 39
 -5 8 40
 -5 8 41
 -5 8 42
 -5 8 43
 -5 9 4
 -5 9 5
 -5 9 6
 -5 9 7
 -5 9 8
 -5 9 9
 -5 9 10
 -5 9 11
 -5 9 12
 -5 9 13
 -5 9 14
 -5 9 24
 -5 9 25
 -5 9 26
 -5 9 27
 -5 9 28
 -5 9 30
 -5 9 31
 -5 9 32
 -5 9 33
 -5 9 37
 -5 9 38
 -5 9 39
 -5 9 40
 -5 9 41
 -5 9 42
 -5 9 43
 -5 10 4
 -5 10 5
 -5 10 6
 -5 10 7
 -5 10 8
 -5 10 9
 -5 10 10
 -5 10 11
 -5 10 12
 -5 10 13
 -5 10 14
 -5 10 24
 -5 10 25
 -5 10 26
 -5 10 31
 -5 10 32
 -5 10 33
 -5 10 37
 -5 10 38
 -5 10 39
 -5 10 40
 -5 10 41
 -5 10 42
 -5 11 5
 -5 11 6
 -5 11 7
 -5 11 8
 -5 11 9
 -5 11 10
 -5 11 11
 -5 11 12
 -5 11 13
 -5 11 14
 -5 11 24
 -5 11 25
 -5 11 26
 -5 11 27
 -5 11 37
 -5 12 5
 -5 12 6
 -5 12 7
 -5 12 8
 -5 12 9
 -5 12 10
 -5 12 11
 -5 12 12
 -5 12 13
 -5 13 6
 -5 13 7
 -5 13 8
 -5 13 9
 -5 13 10
 -5 13 11
 -5 13 12
 -5 13 13
 -5 14 6
 -5 14 7
 -5 14 8
 -5 14 9
 -5 14 10
 -5 14 11
 -5 14 12
